736.0 0.0 0
694.4 138.1 0
689.2 285.5 0
741.7 495.6 0
677.4 677.4 0
647.2 968.7 0
845.3 2040.8 0
414.8 2085.1 0
0.0 2073.0 0
-405.8 2040.0 0
-838.8 2025.1 0
-1308.4 1958.1 0
-954.6 954.6 0
-881.4 588.9 0
-1435.7 594.7 0
-1532.0 304.7 0
-1481.0 0.0 0
-1395.7 -277.6 0
-719.7 -298.1 0
-454.8 -303.9 0
-294.9 -294.9 0
-192.8 -288.5 0
-119.0 -287.3 0
-56.0 -281.5 0
-0.0 -272.0 0
53.8 -270.7 0
110.2 -266.1 0
176.1 -263.6 0
260.9 -260.9 0
377.5 -252.2 0
545.1 -225.8 0
732.6 -145.7 0
708.0 0.0 200
717.0 142.6 200
733.6 303.9 200
743.3 496.7 200
683.1 683.1 200
759.5 1136.6 200
851.5 2055.6 200
409.3 2057.7 200
0.0 2068.0 200
-406.8 2044.9 200
-921.5 2224.7 200
-1391.7 2082.8 200
-1071.3 1071.3 200
-890.5 595.0 200
-1453.3 602.0 200
-1558.5 310.0 200
-1530.0 0.0 200
-1421.2 -282.7 200
-736.3 -305.0 200
-456.5 -305.0 200
-292.7 -292.7 200
-193.3 -289.4 200
-117.9 -284.6 200
-55.6 -279.5 200
-0.0 -275.0 200
54.2 -272.7 200
113.3 -273.5 200
178.9 -267.7 200
263.8 -263.8 200
380.0 -253.9 200
550.6 -228.1 200
720.9 -143.4 200
733.0 0.0 400
685.6 136.4 400
681.8 282.4 400
691.8 462.2 400
678.1 678.1 400
801.7 1199.8 400
850.3 2052.9 400
413.6 2079.3 400
0.0 2059.0 400
-406.0 2041.0 400
-887.8 2143.4 400
-1397.8 2092.0 400
-1008.3 1008.3 400
-892.2 596.1 400
-1427.4 591.2 400
-1552.6 308.8 400
-1527.0 0.0 400
-1425.1 -283.5 400
-742.8 -307.7 400
-459.0 -306.7 400
-294.2 -294.2 400
-195.0 -291.8 400
-119.0 -287.3 400
-55.8 -280.5 400
-0.0 -278.0 400
54.6 -274.6 400
112.9 -272.5 400
176.7 -264.4 400
263.0 -263.0 400
383.3 -256.1 400
549.7 -227.7 400
748.3 -148.9 400
690.0 0.0 600
722.8 143.8 600
688.3 285.1 600
698.4 466.7 600
671.0 671.0 600
773.9 1158.2 600
848.4 2048.2 600
410.1 2061.6 600
0.0 2294.0 600
-405.0 2036.1 600
-889.0 2146.2 600
-1458.4 2182.6 600
-1170.3 1170.3 600
-892.2 596.1 600
-1466.2 607.3 600
-1572.2 312.7 600
-1560.0 0.0 600
-1473.1 -293.0 600
-754.8 -312.7 600
-462.3 -308.9 600
-299.1 -299.1 600
-196.7 -294.3 600
-121.3 -292.9 600
-56.8 -285.4 600
-0.0 -279.0 600
55.2 -277.6 600
113.3 -273.5 600
180.6 -270.2 600
265.9 -265.9 600
388.3 -259.5 600
549.7 -227.7 600
710.1 -141.2 600
647.0 0.0 800
668.9 133.1 800
638.4 264.4 800
666.8 445.6 800
635.7 635.7 800
732.8 1096.7 800
836.2 2018.7 800
412.0 2071.4 800
0.0 2051.0 800
-403.3 2027.3 800
-451.2 1089.3 800
-1151.1 1722.8 800
-1340.7 1340.7 800
-913.8 610.6 800
-1460.7 605.0 800
-1612.4 320.7 800
-1565.0 0.0 800
-1479.0 -294.2 800
-744.6 -308.4 800
-468.1 -312.8 800
-302.6 -302.6 800
-199.4 -298.5 800
-122.1 -294.7 800
-56.8 -285.4 800
-0.0 -281.0 800
55.6 -279.5 800
114.4 -276.2 800
180.0 -269.4 800
267.3 -267.3 800
391.6 -261.7 800
553.4 -229.2 800
653.2 -129.9 800
687.0 0.0 1000
661.0 131.5 1000
633.8 262.5 1000
660.2 441.1 1000
655.5 655.5 1000
742.2 1110.8 1000
835.8 2017.8 1000
412.4 2073.4 1000
0.0 2050.0 1000
-402.5 2023.4 1000
-839.2 2026.1 1000
-1331.1 1992.2 1000
-1031.7 1031.7 1000
-881.4 588.9 1000
-1433.9 593.9 1000
-1569.3 312.1 1000
-1363.0 0.0 1000
-798.4 -158.8 1000
-712.3 -295.0 1000
-467.3 -312.2 1000
-300.5 -300.5 1000
-197.2 -295.2 1000
-120.9 -291.9 1000
-57.2 -287.4 1000
-0.0 -280.0 1000
54.8 -275.6 1000
114.0 -275.3 1000
180.6 -270.2 1000
266.6 -266.6 1000
392.5 -262.2 1000
547.9 -226.9 1000
682.6 -135.8 1000
654.0 0.0 1200
581.6 115.7 1200
624.5 258.7 1200
726.7 485.6 1200
795.5 795.5 1200
873.4 1307.1 1200
837.7 2022.4 1200
414.0 2081.2 1200
0.0 2049.0 1200
-406.0 2041.0 1200
-835.8 2017.8 1200
-1325.6 1983.9 1200
-1595.9 1595.9 1200
-1137.5 760.0 1200
-1528.1 633.0 1200
-1591.8 316.6 1200
-1446.0 0.0 1200
-818.0 -162.7 1200
-715.1 -296.2 1200
-463.1 -309.5 1200
-299.1 -299.1 1200
-196.7 -294.3 1200
-120.9 -291.9 1200
-56.6 -284.4 1200
-0.0 -279.0 1200
55.4 -278.5 1200
113.3 -273.5 1200
180.0 -269.4 1200
266.6 -266.6 1200
390.8 -261.1 1200
550.6 -228.1 1200
760.1 -151.2 1200
1049.0 0.0 1400
1052.4 209.3 1400
1050.5 435.1 1400
1048.5 700.6 1400
1048.6 1048.6 1400
1147.8 1717.8 1400
845.7 2041.8 1400
411.1 2066.5 1400
0.0 2060.0 1400
-405.8 2040.0 1400
-834.6 2015.0 1400
-1318.4 1973.1 1400
-1679.4 1679.4 1400
-1645.5 1099.5 1400
-1569.7 650.2 1400
-1599.7 318.2 1400
-1554.0 0.0 1400
-1183.8 -235.5 1400
-697.5 -288.9 1400
-476.4 -318.3 1400
-301.9 -301.9 1400
-197.8 -296.0 1400
-120.9 -291.9 1400
-56.8 -285.4 1400
-0.0 -280.0 1400
55.6 -279.5 1400
113.3 -273.5 1400
179.4 -268.6 1400
267.3 -267.3 1400
390.0 -260.6 1400
599.6 -248.4 1400
995.5 -198.0 1400
1037.0 0.0 1600
1036.7 206.2 1600
1047.7 434.0 1600
1058.5 707.2 1600
1098.8 1098.8 1600
1217.8 1822.6 1600
849.2 2050.1 1600
413.8 2080.2 1600
0.0 2066.0 1600
-407.0 2045.9 1600
-841.5 2031.6 1600
-1335.6 1998.9 1600
-1784.7 1784.7 1600
-2030.4 1356.7 1600
-1819.1 753.5 1600
-1695.8 337.3 1600
-1588.0 0.0 1600
-1254.4 -249.5 1600
-697.5 -288.9 1600
-468.1 -312.8 1600
-294.9 -294.9 1600
-191.1 -286.0 1600
-119.0 -287.3 1600
-55.0 -276.6 1600
-0.0 -273.0 1600
54.4 -273.6 1600
111.4 -268.8 1600
173.9 -260.2 1600
260.2 -260.2 1600
380.0 -253.9 1600
587.6 -243.4 1600
982.7 -195.5 1600
1135.0 0.0 1800
1142.6 227.3 1800
1189.0 492.5 1800
1296.3 866.1 1800
1650.4 1650.4 1800
1262.3 1889.1 1800
848.4 2048.2 1800
411.8 2070.4 1800
0.0 2056.0 1800
-404.2 2032.2 1800
-834.6 2015.0 1800
-1329.5 1989.7 1800
-1796.8 1796.8 1800
-2272.4 1518.4 1800
-2623.8 1086.8 1800
-2137.1 425.1 1800
-1586.0 0.0 1800
-1348.6 -268.2 1800
-733.6 -303.9 1800
-464.8 -310.6 1800
-300.5 -300.5 1800
-194.4 -291.0 1800
-120.2 -290.1 1800
-56.2 -282.5 1800
-0.0 -277.0 1800
55.0 -276.6 1800
112.9 -272.5 1800
178.9 -267.7 1800
263.8 -263.8 1800
383.3 -256.1 1800
595.9 -246.8 1800
984.7 -195.9 1800
